ply
format ascii 1.0 
comment created for the book 3D Deep Learning with Python 
element vertex 239
property float32 x 
property float32 y 
property float32 z 
end_header 
-0.663942 6.3572 2.12983 
-0.740952 6.40971 2.15037 
-0.764651 6.06952 1.35479 
-0.683769 6.31771 1.07332 
-0.826122 6.2366 1.39421 
-0.722824 6.22726 1.74601 
-0.718839 6.27415 1.06645 
-0.867762 6.24867 1.39819 
-0.763301 6.31352 1.7717 
-0.748397 6.27069 1.06645 
-0.894079 6.22328 1.39332 
-0.804449 6.32004 1.77498 
-0.78274 6.22679 1.05959 
-0.935233 6.23104 1.39642 
-0.842055 6.29962 1.77061 
-0.663714 6.28607 2.06207 
-0.830043 6.28227 1.07023 
-0.96513 6.16726 1.38314 
-0.714068 6.38179 2.09545 
-0.865627 6.24962 1.06542 
-0.996503 6.11683 1.37295 
-0.756755 6.39981 2.10301 
-0.890722 6.14856 1.0486 
-1.04122 6.14696 1.38136 
-0.915216 6.11508 1.04345 
-0.7701 6.33582 1.37806 
-0.957343 6.13256 1.04757 
-0.685257 6.47509 1.06656 
-0.781382 6.1022 1.32707 
-1.03443 6.30014 1.77881 
-0.998759 6.14391 1.05066 
-0.691088 6.15111 1.01223 
-0.837473 6.2327 1.35732 
-1.10301 6.46032 1.8269 
-0.745766 6.28458 1.71259 
-1.05642 6.24819 1.07023 
-0.743738 6.2681 1.0329 
-0.873692 6.20604 1.35256 
-1.15109 6.49491 1.83892 
-0.792929 6.34292 1.73015 
-0.7812 6.24765 1.03023 
-0.913224 6.20429 1.35343 
-0.831052 6.32443 1.72643 
-0.826204 6.2876 1.0379 
-0.945804 6.15595 1.34392 
-0.879005 6.35355 0.643948 
-0.861354 6.32426 1.72749 
-0.852187 6.25627 1.03323 
-0.970312 6.12248 1.33744 
-0.909026 6.28113 0.63571 
-0.87896 6.16095 1.0179 
-1.01219 6.13746 1.34219 
-0.946352 6.26156 0.634013 
-0.677163 6.35887 2.03619 
-0.91424 6.13189 1.0139 
-0.987883 6.26921 0.63571 
-1.15068 6.41991 2.12883 
-0.715568 6.34126 2.03188 
-0.95364 6.13187 1.0149 
-0.717496 6.28296 1.31823 
-1.02725 6.26288 0.63571 
-1.03421 6.39011 1.75251 
-1.20735 6.50219 2.15907 
-0.758171 6.3593 2.03927 
-0.999562 6.1725 1.0229 
-0.759843 6.30162 1.32325 
-1.06964 6.2739 0.63789 
-0.886087 6.35871 0.608555 
-1.09192 6.49001 1.78232 
-1.25135 6.51126 2.16474 
-1.0547 6.26533 1.0399 
-0.804978 6.33938 1.33245 
-1.11176 6.33915 0.646613 
-0.909666 6.30921 0.603236 
-1.12281 6.48669 1.78285 
-1.28564 6.52393 2.17103 
-0.715586 6.43784 1.01437 
-0.805796 6.12038 1.28602 
-0.944656 6.27193 0.599536 
-1.34003 6.58273 2.19371 
-0.736858 6.27445 0.988488 
-0.989781 6.30318 0.60393 
-0.821498 6.46106 0.811832 
-0.77328 6.24619 0.984654 
-0.869771 6.02271 1.2672 
-1.02811 6.28899 0.603005 
-0.851086 6.37538 0.799983 
-0.794199 6.27807 1.66105 
-0.810682 6.22751 0.982417 
-0.927274 6.1447 1.29481 
-1.06826 6.28632 0.603467 
-0.876828 6.27 0.785243 
-0.835454 6.28636 1.66467 
-0.851436 6.23403 0.984334 
-0.960899 6.10785 1.28811 
-0.659307 6.19374 1.24181 
-0.919133 6.28394 0.788133 
-0.875481 6.28481 1.66571 
-0.699548 6.35918 1.97494 
-0.88373 6.18167 0.976665 
-0.999256 6.1017 1.28811 
-0.708021 6.27907 1.26028 
-0.942998 6.24238 0.782642 
-0.901989 6.25959 1.66001 
-0.730354 6.3634 1.97733 
-0.907246 6.14034 0.970594 
-1.04888 6.21835 1.31447 
-0.738492 6.28345 1.26188 
-0.90636 6.34877 0.58255 
-0.992256 6.29885 0.79189 
-0.791129 6.40281 0.770265 
-0.771215 6.36627 1.97973 
-0.943658 6.12087 0.968358 
-0.774906 6.25339 1.25666 
-0.938446 6.29187 0.576738 
-0.823375 6.33484 0.761331 
-1.009 6.42516 1.70816 
-1.15714 6.41691 2.07687 
-0.982097 6.11482 0.968358 
-0.812701 6.23674 1.25426 
-0.977649 6.28388 0.576515 
-0.857934 6.29028 0.755748 
-1.0519 6.43394 1.7123 
-1.21058 6.47867 2.09967 
-1.03012 6.16497 0.977624 
-0.732096 6.3487 0.942058 
-0.854721 6.25287 1.25867 
-1.01873 6.28742 0.577632 
-0.897714 6.28673 0.756027 
-1.09395 6.43672 1.71489 
-1.25823 6.50641 2.11138 
-1.08844 6.26919 0.995837 
-0.761041 6.2517 0.927867 
-0.893992 6.24738 1.25867 
-1.06057 6.29461 0.579197 
-0.940342 6.30252 0.759098 
-1.1412 6.46775 1.72524 
-1.30212 6.51329 2.11631 
-0.799082 6.23699 0.926357 
-0.914518 6.11369 1.23218 
-1.09264 6.30324 0.580762 
-0.97446 6.32739 0.763286 
-0.789576 6.1856 1.5786 
-1.33357 6.51081 2.11755 
-0.828464 6.23315 0.926357 
-0.94361 6.11125 1.23258 
-0.919963 6.30212 0.53404 
-1.01881 6.35049 0.767473 
-0.841978 6.28419 1.60565 
-1.37964 6.52648 2.12556 
-0.859884 6.17101 0.917601 
-0.981989 6.1052 1.23258 
-0.958075 6.28638 0.53299 
-0.881708 6.2807 1.60615 
-0.895853 6.14591 0.914582 
-1.04727 6.26325 1.2667 
-0.647251 6.34763 1.21201 
-0.997249 6.27827 0.53278 
-0.827415 6.27981 0.718013 
-0.923904 6.2942 1.61116 
-0.932995 6.13039 0.913072 
-0.663837 6.1347 1.17099 
-1.03922 6.28758 0.53446 
-0.883231 6.39027 0.733836 
-0.984393 6.42806 1.64773 
-1.15391 6.50976 2.04208 
-0.705581 6.29595 1.88859 
-0.972102 6.12831 0.913676 
-0.714782 6.23567 1.19169 
-1.083 6.30643 0.537191 
-0.912929 6.31401 0.724181 
-1.02895 6.44853 1.65474 
-1.19445 6.50051 2.04148 
-0.75183 6.34649 1.90544 
-1.01532 6.15136 0.918205 
-0.750852 6.28679 1.20242 
-0.941177 6.29985 0.72284 
-1.06179 6.4589 1.65875 
-1.23029 6.52295 2.05047 
-0.782689 6.35047 1.90777 
-1.06184 6.25182 0.93451 
-0.781543 6.21381 1.189 
-0.983544 6.31142 0.725254 
-1.10555 6.4712 1.66376 
-0.82136 6.21461 1.19015 
-1.02901 6.34031 0.730082 
-0.868112 6.26375 1.20089 
-0.975285 6.32568 0.505844 
-0.885568 6.1106 1.17175 
-1.0134 6.30961 0.504842 
-0.898065 6.34236 0.682445 
-0.799075 6.25159 1.53389 
-0.915541 6.0506 1.16102 
-1.0547 6.31293 0.505844 
-0.926812 6.26002 0.672524 
-0.835959 6.22914 1.52954 
-0.95394 6.10825 1.17329 
-0.647602 6.21459 1.12873 
-0.951313 6.22223 0.668199 
-0.868312 6.24627 1.53486 
-0.994228 6.11375 1.17559 
-0.691879 6.25927 1.13788 
-1.00109 6.28473 0.677103 
-0.907541 6.24069 1.53486 
-0.71563 6.33008 1.83199 
-1.05998 6.266 1.20702 
-0.732525 6.26652 1.14007 
-1.04215 6.28811 0.678375 
-0.948519 6.24637 1.53776 
-1.13407 6.54985 1.98331 
-0.752288 6.29876 1.82412 
-0.766496 6.21689 1.13166 
-1.09023 6.33229 0.684989 
-0.997035 6.29776 1.55224 
-1.18036 6.57083 1.99202 
-0.793951 6.31106 1.82918 
-0.814664 6.28413 1.14519 
-0.659299 6.26982 2.16758 
-1.05781 6.4177 1.58412 
-1.2202 6.55576 1.9897 
-0.835306 6.31927 1.83312 
-0.85258 6.26719 1.143 
-1.10679 6.46063 1.59668 
-0.866026 6.14623 1.12104 
-0.772828 6.2815 1.47167 
-0.898182 6.09591 1.11263 
-0.800835 6.18579 1.44991 
-0.941145 6.12125 1.11848 
-0.8494 6.25393 1.4675 
-0.988116 6.16961 1.12873 
-0.886804 6.23498 1.46426 
-1.04302 6.26225 1.14739 
-0.927361 6.23891 1.46658 
-1.06741 6.31148 1.84099 
-0.963039 6.20988 1.46102 
-1.13736 6.48055 1.8933 
-1.00162 6.26486 1.47537 
-1.17626 6.52237 1.90736 
-1.07133 6.44471 1.52029 
